82.2678,4689.7725,50396.3047
25082.2676,5189.7725,50396.3047
50082.2695,3689.7725,50396.3047
46957.2695,3439.6377,50411.9258
50082.2695,3439.7725,50396.3047
25082.2676,4189.8223,50390.5039
25082.2676,3689.2139,50461.0586
37582.2695,4189.8101,50391.9531
37582.2695,3564.3062,50450.3789
43832.2695,3689.5281,50424.6367
43832.2695,3439.521,50425.4648
40707.2695,3314.5408,50423.1602
37582.2695,3376.8987,50439.6367
37582.2695,3314.4873,50429.3555
31332.2676,3314.416,50437.6172
82.2678,3189.7725,44146.3047
135.0536,3439.4875,37896.3047
82.2678,3189.7725,37896.3047
100.6947,3252.1729,37896.3047
105.3009,3252.1479,31646.3047
95.4552,4189.7012,37896.3047
98.7625,3439.6833,3521.3052
82.2678,3439.7725,396.3051
82.2678,3189.7725,396.3051
82.2678,3189.7725,9771.3047
100.6947,3252.1729,12896.3047
113.0581,3439.6062,44146.3047
109.2243,3314.627,41021.3047
143.3716,3564.4426,37896.3047
135.0536,3439.4875,12896.3047
123.7392,3314.5486,19146.3047
152.647,3439.3923,25396.3047
123.7392,3314.5486,31646.3047
115.4442,3314.5933,37896.3047
82.2678,3189.7725,41021.3047
163.7402,3564.3325,25396.3047
142.683,3689.4463,37896.3047
101.6216,3314.668,44146.3047
71.0487,4689.833,25396.3047
82.2678,4189.7725,50396.3047
117.5098,3689.582,44146.3047
82.2678,3689.7725,50396.3047
98.7625,3439.6833,47271.3047
82.2678,3439.7725,50396.3047
82.2678,3189.7725,3521.3052
101.6216,3314.668,6646.3052
113.0581,3439.6062,6646.3052
82.2678,3689.7725,396.3051
82.2678,3939.7725,396.3051
82.2678,5189.7725,25396.3047
99.8516,4189.6772,25396.3047
142.683,3689.4463,12896.3047
162.8227,3689.3374,25396.3047
143.3716,3564.4426,12896.3047
109.2243,3314.627,9771.3047
115.4442,3314.5933,12896.3047
105.3009,3252.1479,19146.3047
126.503,3314.5337,25396.3047
50042.6406,3439.4768,37896.3047
50036.793,3689.4331,37896.3047
50050.0703,3439.5322,41021.3047
50057.3828,3314.5867,37896.3047
50082.2695,3189.7725,41021.3047
50082.2695,3189.7725,44146.3047
50059.1523,3439.5999,44146.3047
50067.75,3314.6641,6646.3052
50082.2695,3189.7725,12896.3047
50057.3828,3314.5867,12896.3047
50036.793,3689.4331,12896.3047
50082.2695,5189.7725,50396.3047
50082.2695,4189.7725,50396.3047
50055.7422,3689.5745,44146.3047
50072.0742,4189.6963,37896.3047
50021.6367,3689.3201,25396.3047
50029.4336,3439.3782,25396.3047
50042.6406,3439.4768,12896.3047
50049.0859,3314.5249,25396.3047
50082.2695,3189.7725,25396.3047
50082.2695,5189.7725,25396.3047
50068.6797,4189.6709,25396.3047
50082.2695,4189.7725,396.3051
50082.2695,3689.7725,396.3051
50082.2695,3439.7725,396.3051
50059.1523,3439.5999,6646.3052
50082.2695,3189.7725,396.3051
12582.2676,5189.7725,396.3051
82.2678,5189.7725,396.3051
82.2678,4689.7725,396.3051
12582.2676,4439.4248,310.3561
37582.2695,4439.3774,298.6469
37582.2695,3189.7725,396.3051
43832.2695,3189.7725,396.3051
43832.2695,4189.4873,325.7561
37582.2695,4064.3101,281.9633
43832.2695,3689.6189,358.3508
37582.2695,3689.5195,333.786
37582.2695,4189.2969,278.7571
25082.2676,4439.2788,274.2443
25082.2676,4064.1907,252.409
37582.2695,3939.3589,294.0598
37582.2695,3439.6877,375.3967
12582.2676,3189.7725,396.3051
12582.2676,3689.5574,343.153
12582.2676,3939.4063,305.7709
82.2678,4189.7725,396.3051
12582.2676,4189.3477,291.2483
37582.2695,4939.6938,376.9321
37582.2695,5189.7725,396.3051
50082.2695,5189.7725,396.3051
25082.2676,5189.7725,396.3051
25082.2676,4939.6831,374.279
37582.2695,4689.5361,337.8754
50082.2695,4689.7725,396.3051
43832.2695,3939.5237,334.8065
12582.2676,4939.7163,382.3967
25082.2676,4689.4839,324.9207
12582.2676,4689.5742,347.2443
25082.2676,4189.1738,248.27
12582.2676,4064.3599,294.26
25082.2676,3939.2542,268.1293
25082.2676,3689.4617,319.4675
25082.2676,3439.675,372.2305
12582.2676,3439.71,380.8613
25082.2676,3314.7458,389.7362
12582.2676,3314.7581,392.7784
15528.5195,4275.0566,21371.1836
16257.8398,4246.5693,22109.832
16273.4004,4166.0254,21339.1758
22069.0938,3491.1248,4398.4482
21269.5508,3386.9946,3600.3428
21282.7266,3437.0273,4393.1406
864.5811,3210.8552,19147.6699
82.2678,3189.7725,22271.3047
864.5811,3210.8552,22272.6699
16453.5586,3403.1721,37871.3438
15693.5527,3326.9275,38668.1953
16469.3359,3318.5688,38663.2891
14124.9434,3410.958,37884.6641
14140.7207,3326.3547,38676.6055
16324.2617,3921.0977,33092.4063
15587,3906.4312,33908.8906
16342.4844,3820.866,33885.8828
9459.8926,3950.8555,34010.4688
10233.6406,3871.3491,34783.7188
10233.9961,3987.4287,34005.4766
6348.9561,3795.7781,32455.6016
5567.8242,3741.4951,31673.1035
5566.145,3678.231,32451.5313
3214.7542,3372.668,33219.2813
2432.1108,3335.8682,31654.7324
2430.4609,3295.144,33214.9609
3217.4424,3437.9858,30097.9492
2433.1494,3360.4619,30093.6328
865.2964,3228.7625,28523.668
82.2678,3189.7725,30083.8047
865.2964,3228.7625,30086.168
865.2944,3227.7695,25398.6406
82.2678,3189.7725,26958.8047
865.2944,3227.7695,26961.1406
43026.625,2989.0669,47251.8867
43808.5,2971.7964,45689.8633
43026.043,2945.0225,45688.9531
46979.4727,3215.9143,26977.5195
45437.1797,3270.064,25432.3438
45437.2891,3254.9937,26994.7852
28798.5313,2668.6479,34609.9688
28072.2031,2812.9807,36219.4336
28872.8301,2781.7256,36235.4336
26209.9805,2562.7593,30500.0742
27048.6758,2558.6301,31328.3672
27015.4375,2528.6431,30519.4531
26152.1465,2521.8433,28889.6289
25330.9648,2578.05,28077.0898
25355.5625,2588.979,28878.6211
27773.9805,2474.2322,28937.1328
26939.9277,2490.7231,28113.0273
26961.6016,2494.4233,28912.207
40706.6406,3759.9224,15249.7031
42276.8516,3626.0664,16034.7285
42269.793,3633.6592,15248.0088
35999.6289,4089.313,13677.6055
35220.6406,4133.6865,12899.1836
35220.5781,4120.4004,13679.9648
34436.5078,4141.3623,13678.0488
32885.9219,4182.7412,12907.4199
32880.8398,4159.3296,13683.9268
25732.2891,3757.9324,15924.9043
24855.3242,3552.042,17406.0117
25639.0547,3578.4624,17408.3945
37568.4688,3425.27,2733.6396
39123.2813,3440.4731,3509.0037
39127.2188,3365.3013,2729.4561
31355.9492,3437.377,1982.9054
29794.291,3326.0286,1200.1257
29817.9727,3573.6331,2786.7261
29769.7676,3189.7725,396.3051
28231.791,3326.0286,1200.1257
26644.7676,3189.7725,396.3051
26669.291,3326.0286,1200.1257
25112.4668,3304.8848,1204.2494
26699.4902,3441.1409,2008.0701
26717.2383,3558.1226,2805.9817
28274.0625,3579.2661,2801.8579
29835.7207,3690.6147,3584.6377
29841.5,3788.2356,4372.4443
31385.4102,3782.6025,4357.312
32928.1914,3905.8853,5906.1533
32922.4141,3808.2644,5118.3472
36015.0273,3555.4482,3524.7822
36013.5234,3455.6411,2740.3469
34464.0234,3510.6472,2751.9417
36017.4609,3380.469,1960.7992
36014.8359,3269.9351,1175.1986
34459.8906,3300.3062,1181.9058
25209.5586,4003.0752,9108.4365
26748.4844,4106.5405,9872.6104
26759.3633,4086.1802,9099.8516
26732.3613,4105.7881,10640.6602
28282.1641,4188.8926,10632.0752
29812.0508,4211.5947,11387.2207
29828.1719,4212.3477,10619.1709
25223.0508,3941.3213,7555.8145
26768.7129,4060.5376,8325.7881
26771.3262,4019.1443,7545.9248
28307.6367,4164.0029,9089.9619
29838.2031,4203.2568,9846.0156
29847.5547,4177.6147,9071.9521
31368.0898,4225.959,10601.1611
32904.1016,4200.623,11360.3203
32914.1289,4191.5322,10587.1641
25220.0391,3838.5425,5989.0176
26773.9043,3968.531,6765.8691
26768.2773,3907.146,5978.9355
28319.5664,4087.7476,7535.8428
29853.6797,4143.915,8295.1348
29856.2578,4093.3018,7515.0786
31384.2441,4183.1689,9051.1875
32917.5508,4171.186,9808.4365
32923.6758,4137.4863,9031.6191
34453.5625,4145.8496,10567.5957
36002.9453,4077.0791,11336.7871
36006.3672,4056.7329,10558.0596
25164.6992,3518.2417,2813.1685
26739.2695,3656.3672,3606.9565
26750.2422,3752.6501,4398.936
28302.7813,3792.5308,4391.749
29852.4707,3884.5186,5164.4238
29854.25,3962.4836,5948.5684
31392.9688,3958.1885,5929.2632
32929.9727,3983.8503,6690.2979
32928.3906,4041.1465,7471.2852
34463.6133,3988.8433,7448.1753
36008.4219,3902.1216,7432.1729
36010.0039,3844.8257,6651.1855
36007.6797,3991.364,8995.6094
37554.0703,3847.3462,8198.6201
39112.1406,3745.4351,8193.0889
39112.8828,3656.1924,6629.6519
40680.5156,3688.8882,9759.166
42239.3203,3497.7344,8190.1973
43806.0313,3402.0444,8191.7803
42237.6602,3458.5913,6625.7041
45386.6797,3384.0713,12893.3379
45380.4141,3358.7495,11325.418
43813.9609,3466.5093,11324.1924
46949.0078,3251.6758,9765.8721
45376.2891,3334.1138,8196.7266
45374.625,3294.9707,6632.2334
45378.4297,3250.3027,5071.9697
43808.1797,3318.2336,5067.0234
42241.4688,3413.9233,5065.4404
42247.0078,3327.0352,3505.7898
40676.4922,3467.3928,5064.4702
39118.4219,3569.3042,5070.0015
37559.6719,3629.2729,5074.1855
36014.8594,3715.9946,5090.188
34465.3594,3771.001,5101.7827
32922.5781,3647.7178,3552.9414
32921.0742,3547.9106,2768.5059
32897.3906,3300.3062,1181.9058
32894.7695,3189.7725,396.3051
25200.5703,3696.8218,4408.1133
26764.082,3832.9858,5192.9063
28317.9492,3962.9741,5969.7578
29858.4453,4036.6438,6734.5977
31392.5586,4092.8113,7493.8887
32926.1992,4097.8042,8251.7656
34459.5078,4085.8213,9009.0146
36005.1563,4031.0459,9775.4629
37554.5391,3962.2754,10544.6543
40681.7188,3714.5747,10541.7627
39121.7969,3874.6362,12109.1631
42247.7695,3601.249,11323.6738
42254.0352,3626.5708,12891.5928
45389.9531,3196.085,1955.1239
46952.4531,3196.085,1955.1239
45394.7695,3189.7725,396.3051
48514.9531,3196.085,5080.124
48519.7695,3189.7725,3521.3052
50082.2695,3189.7725,3521.3052
48519.7695,3189.7725,396.3051
28190.6211,4073.2964,13680.1445
29727.8984,4063.1755,14440.5605
29757.5313,4120.875,13684.5713
25774.9375,3828.4619,15179.5947
24991.2051,3802.0415,15177.2119
27338.5039,3899.9751,15181.7109
26597.4219,3944.084,14434.0176
26633.1934,3992.9731,13682.7373
25069.625,3921.46,13680.6211
26662.8242,4050.6724,12926.748
26690.3027,4075.5017,12168.2969
25132.875,3995.1785,12170.8896
32857.4258,4069.3174,15225.3662
31273.9629,4040.0532,15207.8047
32836.5781,3998.6167,15988.1836
29707.0527,3992.4749,15203.3779
28125.793,3931.4829,15187.1084
29671.8555,3908.3608,15954.3525
27303.3086,3815.8608,15932.6855
26428.3359,3576.7754,17414.6016
27215.625,3608.2837,17420
25551.3711,3370.8853,18895.707
35215.5,4096.9888,14456.4707
35215.7734,4064.7637,15237.1631
35999.8477,4043.8022,15239.0781
36787.8516,3983.4905,16024.5469
36787.5703,4015.7153,15243.8545
36798.3672,3853.9114,18374.0156
36001.9961,3856.1211,18361.6992
36799.1328,3794.061,19154.6563
35204.7031,3909.699,17568.5
35205.4688,3849.8486,18349.1387
34402.3945,3828.6431,18330.9648
35199.6875,3775.0654,19124.1641
32808.1797,3846.5215,17524.4336
32802.3945,3771.7383,18299.4609
31185.6387,3687.4126,18253.8242
32779.8516,3669.5344,19060.3555
29572.707,3601.9873,18211.4805
29550.168,3499.7834,18972.375
25474.25,3155.8779,20391.5195
26263.5313,3154.1909,20397.7266
27061.8223,3176.771,20411.7852
27138.9453,3391.7783,18915.9727
28013.916,3630.8635,17434.0566
29649.3867,3818.4927,16715.5059
31230.6484,3879.4844,16731.7754
32830.6484,3936.3894,16763.2813
34414.1094,3965.6533,16780.8418
35210.6367,3971.9263,16793.4023
31071.4238,3058.8086,22836.5938
30242.8008,2997.7097,22796.9961
30229.3359,2899.4875,23565.5664
30261.5859,3098.0247,22032.8242
29419.4961,2938.7036,22761.7969
28597.0059,2900.7993,22727.7148
28578.2207,2800.4844,23491.8867
28620.4668,2998.9521,21967.332
27779.1914,2860.7329,22697.4219
26967.5664,2858.1387,22672.9531
26944.1055,2759.9861,23433.3359
31050.6172,2877.3547,24379.1094
30218.9258,2817.9136,24336.9844
30211.582,2734.6819,25110.9297
29390.3008,2756.8147,24297.3867
28565.1035,2723.4365,24261.127
28554.6934,2641.8623,25032.543
27742.6133,2685.5322,24227.043
26928.9512,2690.5056,24201.0117
26915.834,2613.4575,24970.25
26117.3281,2687.9114,24176.543
25320.1836,2743.3267,24165.0449
25305.0273,2673.8462,24932.7207
36783.3477,4050.6602,13678.9141
37563.6563,4004.2249,13677.291
36779.9922,4056.1638,12895.2012
39133.2969,3883.1182,14461.9932
39129.9414,3888.6218,13678.2803
36783.2891,4037.374,14459.6953
37571.2891,3977.0625,15245.1641
39137.5781,3861.4595,15246.1523
38361.0391,3910.4084,16031.9609
39923.043,3816.4644,15248.791
39930.1016,3808.8713,16035.5107
29798.1484,4194.4248,12156.7109
31344.1563,4217.8789,12143.8066
32899.8242,4199.9116,12137.9297
34445.8672,4165.4854,12123.9336
35224.9141,4134.3975,12121.5742
36777.7188,4045.2808,12112.0381
37558.0234,3998.8452,12110.415
39124.0703,3885.5195,12892.3262
40693.7109,3764.4128,13677.0283
42259.9063,3629.6733,13677.5469
43830.1172,3495.8174,14462.5732
45396.5703,3388.0571,14463.7988
45404.3203,3387.9492,17595.0176
46960.8906,3276.2031,16025.7813
43097.5273,3468.144,20751.2383
42303.8594,3566.7297,19180.3242
41538.6172,3569.2144,20755.832
45431.1641,3314.9438,23865.5352
43888.9766,3354.0229,23882.8008
46977.3438,3244.1345,23851.1016
45429.1406,3328.0935,22301.5586
45419.043,3361.4717,20731.4258
43872.8672,3432.2813,20745.8613
40781.8242,3442.2725,23898.7383
39995.8008,3437.4023,23894.7324
40004.3281,3351.0425,25462.9961
39987.6484,3545.3984,22327.1094
39210.1563,3454.1685,23891.3672
38414.3203,3432.5618,23879.0469
38422.4727,3324.5657,25446.6719
38408.2109,3561.3203,22313.4336
37620.5313,3431.7175,23868.7383
36812.4688,3389.1099,23846.0566
36818.5781,3260.3513,25411.6719
36810.4961,3536.6528,22284.1563
36008.543,3365.2866,23827.0898
25416.7852,2630.0967,30491.5195
25450.0215,2660.084,31300.4336
24595.6035,2686.3037,29678.9805
23815.9531,2786.3828,29682.3047
23877.1758,2827.5005,31295.2031
26986.1992,2505.3521,29713.7344
27824.8945,2501.2231,30542.0293
28668.1563,2517.7813,31374.75
28638.918,2494.4905,30569.0313
28696.2188,2543.7852,32179.7461
29510.2422,2537.0525,32206.75
30349.8008,2561.3892,33037.0156
30321.7363,2535.3853,32232.0156
30372.2305,2582.124,33837.4688
31183.7227,2580.4568,33862.7344
32010.3164,2595.584,34682.5078
31987.8867,2574.8491,33882.0508
30241.8652,2526.311,29039.8711
31071.4609,2569.5159,29080.2227
30228.6992,2547.0342,28247.7539
31910.9219,2594.9924,29910.2285
31897.7559,2615.7153,29118.1094
32728.7207,2675.1929,29159.9141
31889.2598,2649.7163,28329.9082
33556.2266,2740.6606,29199
33547.7305,2774.6616,28410.8008
34371.9531,2965.0408,26885.8789
33544.4453,2899.5732,26846.791
28615.0918,2483.3774,29767.7695
28593.418,2479.6775,28968.5898
29458.3555,2499.9358,30600.4883
30301.0273,2525.7437,31433.1445
30277.2012,2514.6304,30631.8789
31140.582,2550.0801,32263.4082
31973.668,2572.238,33088.4922
31952.957,2562.5962,32289.6172
32800.2617,2587.3652,33908.2578
33617.1016,2596.2009,34719.9297
33602.8828,2593.5898,33926.3672
37623.0156,2953.9414,30116.4414
36821.7109,2912.4988,30099.3477
36817.2578,2808.0439,31657.9043
36001.3516,2949.2627,28503.8867
35195.5938,2803.3652,30045.3477
34384.7422,2760.1284,30020.2109
35205.1016,2723.3643,31615.6738
33565.7305,2660.6597,30769.3262
32748.4688,2620.9805,30738.8672
33576.9844,2640.4482,31560.0781
31922.1758,2574.7808,30700.9805
26459.8984,2858.0503,35396.8906
26534.1973,2971.1279,37022.3516
24965.6563,3069.6279,37017.5859
26577.957,3024.5586,37840.1328
25859.0469,3179.5151,39455.375
27427.5879,3081.0151,39460.1406
25079.75,3213.1323,39456.7188
25929.3789,3269.5889,41076.7305
25185.7109,3350.9575,42670.5313
25965.0078,3317.3403,42669.1836
28991.6973,2978.2493,39461.6953
29814.4844,3006.8296,41059.9922
30542.832,2851.8298,39452.4297
25998.6973,3377.8105,44260.2383
26742.3633,3296.4419,42666.4375
27519.7012,3245.0806,42663.375
27486.0117,3184.6104,41072.3203
28204.9258,3029.6538,39457.0781
28933.2734,2874.6538,37849.5156
29659.6016,2730.3213,36240.0508
27549.4258,3313.3098,44251.2461
28293.0742,3201.4785,42657.1328
29093.3613,3211.3811,44236.2578
29063.6367,3143.1519,42648.3867
30614.7715,3016.7324,42639.1172
30632.8516,3088.0801,44217.2852
31383.6992,2951.7578,42628.8906
32158.6797,2891.5925,42623.6875
32140.5996,2820.2446,41045.5156
32939.4648,2905.5215,44186.2227
33696.3633,2774.0083,42602.8516
37568.2539,2787.7256,45698.9141
36793.5273,2799.9043,45704.4766
36794.3203,2897.1199,47267.4688
36793.4258,2702.7676,44142.0742
36019.4922,2812.1621,45710.6289
35247.2578,2840.2849,45718.2734
35247.3594,2937.4214,47280.6758
35248.2695,2751.4814,44156.8047
34476.1406,2876.7407,45726.8516
33705.5273,2916.0708,45735.8281
33704.5156,3004.8743,47297.2969
32167.8438,3033.6548,45756.6641
37571.0977,2644.877,42576.1641
36797.0625,2657.1345,42582.3125
36796.8906,2602.6509,41019.3125
36019.2188,2660.5415,42585.2266
35248.0977,2696.9976,42593.8047
35242.6875,2634.8611,41026.3516
34471.7383,2725.8008,42597.9297
33690.9531,2711.8718,41035.3945
32132.5781,3179.9204,49631.707
31351.3281,3179.9204,49631.707
32113.5195,3189.7725,50396.3047
30595.8008,3195.5825,48872.6563
30576.7383,3205.4346,49637.2539
29795.4883,3205.4346,49637.2539
30551.0176,3189.7725,50396.3047
29045.7227,3242.9031,48882.9375
29020,3227.241,49641.9844
28238.75,3227.241,49641.9844
28988.5176,3189.7725,50396.3047
26714.0469,3283.9968,48892.5234
26682.5645,3246.5283,49646.8398
38418.4336,3097.8296,28566.9941
38422.8867,3202.2844,27008.4375
37627.0547,3180.6777,26996.1211
36000.9375,3071.5439,26942.1211
35192.875,3028.9365,26919.4375
35189.5938,3153.8481,25355.4297
35187.6172,3301.3911,23793.5293
43107.625,3434.7656,22321.3711
42339.9609,3405.6755,23894.627
43115.2969,3369.8127,23889.25
43121.3125,3324.9331,25456.0586
43120.9531,3273.5078,27017.8164
43894.6367,3257.7183,27011.3691
45436.9297,3203.5684,28556.5469
40780.9922,3081.9351,30144.8887
42327.5781,3047.7104,31694.0879
42335.8594,3136.4136,30138.7285
42318.1563,3001.325,33248.7617
43873.0234,3055.8032,33242.6016
45412.5625,3062.9163,36348.5781
45421.9844,3109.3018,34793.9023
31250.707,2665.0356,36264.0391
32054.8711,2659.4277,36283.3555
32083.082,2690.1636,37870.4844
32842.6914,2620.7119,36288.9453
33645.3125,2626.9365,36307.0547
33658.3125,2625.4507,37881.332
34432.7227,2600.9397,36312.3125
35231.6016,2618.3354,36327.3047
35218.6055,2619.8213,34753.0273
35232.0859,2590.4258,37890.9648
36017.9688,2609.3076,36331.6797
36811.25,2636.9565,36341.9453
36810.7656,2664.8662,34778.2813
36803.2656,2592.5757,37898.3711
37596.0586,2648.1345,36344.9766
39153.4336,2673.2886,37903.8086
39161.4219,2717.6694,36347.3828
38360.6836,2620.802,39457.1719
39926.0469,2690.3369,39459.5781
39913.7734,2673.9741,41012.2031
40706.5234,2726.4607,39458.8359
39127.2734,2674.0156,42570.6641
39907.75,2710.1392,42569.9219
39900.5508,2736.7832,44126.6328
40687.0469,2736.7419,42568.1719
39122.3438,2800.1543,45691.6602
39901.6445,2826.7568,45689.9063
39902.7422,2904.1392,47253.2109
40680.9531,2840.7681,45688.1836
41462.2109,2878.8071,45688.0664
41461.1133,2801.4248,44124.7617
41468.3125,2774.7808,42568.0547
43031.8438,2873.9087,42568.7109
42257.7773,2809.2256,41012.1172
42270.0547,2825.5884,39459.4922
45376.7656,3057.0767,45694.4336
45376.1875,3013.0322,44131.5
44592.5703,3043.9595,47254.5703
46160.2578,3085.1953,45696.207
46160.2266,3098.1836,47258.6797
46944.4258,3111.3008,45698.5391
50082.2695,3189.7725,41021.3047
48521.8984,3153.0935,37898.0938
48521.8984,3153.0935,41023.0938
40003.7891,3258.4053,27024.2598
40789.8125,3263.2754,27028.2656
39203.9141,3010.0625,30132.2637
39195.6406,2921.3594,31687.623
39182.8281,2846.6902,33239.5703
40759.9023,2918.563,33252.1953
42305.3438,2926.6558,34800.7109
42294.4609,2892.2324,36354.2969
43852.7148,2974.9946,36350.8594
45401.6797,3028.4927,37902.1641
45396.8984,3020.1287,39460.7891
46956.75,3108.0503,39458.5039
48517.1172,3144.7295,42581.7188
46950.832,3157.0308,48828.6563
46169.582,3157.0308,48828.6563
46176.0195,3189.7725,50396.3047
45385.4141,3130.9253,48826.3242
44604.1641,3130.9253,48826.3242
44613.5195,3189.7725,50396.3047
43820.6719,3102.8066,48824.5508
43039.4219,3102.8066,48824.5508
43051.0195,3189.7725,50396.3047
42256.9688,3076.0327,48823.6406
41475.7188,3076.0327,48823.6406
41488.5195,3189.7725,50396.3047
5572.9072,3905.7922,25430.9492
5572.9717,3910.4558,26212.3711
6356.4004,4069.6172,26217.9023
4789.1504,3739.8252,26987.5137
5572.6436,3903.6499,27774.4648
5572.1245,3885.4285,28554.8848
6355.9453,4056.0591,27779.7422
5569.729,3796.0308,30113.3906
4786.918,3678.4834,30109.3203
6352.0273,3911.2483,30898.252
5571.1201,3848.2368,29334.4688
6354.4229,4000.646,29339.7461
4003.9797,3604.605,26981.1348
4003.6516,3597.7993,28543.2285
4002.6133,3573.2058,30104.3281
4000.7085,3518.6699,31664.043
3999.0586,3477.9458,33224.2695
3996.1758,3393.7524,34782.4922
4782.1299,3539.7544,33227.2578
10237.916,3614.0537,36343.6016
11012.0205,3650.627,36338.6094
11761.3535,4414.3237,31643.25
11003.6064,4154.8965,33218.7109
11765.4922,4167.3501,33203.2734
10230.1719,4340.4209,31666.9375
10234.3105,4093.4473,33226.9609
9460.5615,4172.9536,32453.7051
1647.3389,3248.0435,33212.2891
2429.9822,3284.8433,34776.8359
2428.0081,3234.8452,36336.5781
3211.1301,3281.9458,36339.25
3994.2017,3343.7544,36342.2344
3990.936,3247.9998,37899.8672
4775.9814,3359.8064,36343.1133
5554.209,3281.7021,37901.4141
5557.4741,3377.4568,36343.7813
5564.2744,3607.8647,33229.6367
6345.4063,3662.1477,34012.1328
5561.3916,3523.6714,34787.8594
5559.4287,3450.1589,35565.8125
6341.5732,3518.269,35568.1914
6337.6563,3372.0547,37124.1172
7896.8408,3333.2275,37901.7813
7898.7959,3405.9297,37123.8086
9461.1328,4367.8042,30896.2188
10228.498,4439.8887,30886.6797
10228.7568,4528.7207,30107.7129
10997.7949,4501.3379,30878.4316
11756.5117,4515.5156,30860.5059
11754.8398,4614.9834,30080.248
12518.3984,4527.9697,30845.0664
13269.2227,4482.2964,30819.3281
13264.3809,4583.4883,30036.582
9461.5811,4521.1553,29337.6582
10227.5322,4601.4297,29327.1836
10227.7217,4665.9487,28547.5898
10994.8975,4673.5146,29317.6445
11751.2852,4689.416,29297.9063
11750.0605,4762.125,28517.3789
12510.0029,4703.5938,29279.9805
13257.6582,4653.0225,29251.6035
13254.1045,4727.4551,28469.2617
14008.4824,4607.3496,29225.8633
14750.6484,4504.1963,29191.8047
14743.9258,4573.7305,28406.8242
9461.877,4618.7539,27777.6641
10227.084,4703.8398,27766.7148
10227.1904,4736.9199,26986.3164
10993.0352,4784.1143,27756.2422
11748.1855,4801.5894,27735.5605
11747.5479,4839.4805,26954.6836
12504.5742,4817.4907,27715.8223
13250.5381,4765.1885,27686.0645
13248.6621,4804.6523,26904.2461
13998.1934,4714.6167,27657.6875
14738.3789,4607.3037,27621.957
14734.8125,4645.0371,26838.7578
15480.5439,4504.1504,27587.8945
16218.4492,4357.209,27549.3887
16212.9023,4390.7822,26764.5195
16226.0957,4329.3145,28336.0625
16958.4531,4215.9463,27512.6875
17697.5762,4044.7581,27474.5977
17689.9297,4072.6523,26687.9219
23728.9766,2836.6511,24925.6836
22949.2266,2917.522,25710.1523
23728.1309,2810.1326,25705.6914
22185.457,3069.1611,25727.832
22184.6094,3042.6426,26507.8398
21433.8125,3183.4431,27316.916
22197.582,3031.804,27299.2383
19924.9473,3547.8728,26587.6738
19937.918,3537.0342,27379.0723
18438.75,3879.8582,27438.2969
19947.6152,3515.4285,28167.5391
17707.2734,4023.1523,28263.0645
9461.9932,4646.4219,26215.8867
10227.2754,4732.0146,26205.0137
10227.2852,4726.6025,25423.6348
10992.4824,4817.1006,26194.0625
11747.7363,4835.8506,26173.5078
11747.8223,4830.9458,25392.2051
12502.8867,4853.3257,26152.8262
13248.9795,4803.1162,26123.2344
13249.168,4799.4868,25342.0566
13994.9434,4750.8135,26093.4766
14735.2686,4646.3833,26057.9375
14735.5859,4644.8467,25276.9258
15475.4531,4539.0703,26022.207
16213.4941,4395.77,25983.9043
16213.9512,4397.1162,25203.0859
16951.3984,4248.8281,25945.3984
17690.6426,4082.0083,25907.5039
17691.2344,4086.9961,25126.8867
18429.7656,3910.8198,25869.4121
19173.6953,3735.8315,25835.1094
19174.4102,3745.1875,25054.6914
20669.5898,3382.2405,25772.9531
21421.6953,3214.4343,25745.418
20670.4453,3402.3931,24992.8555
22186.3105,3089.3137,24947.7324
13278.3652,4388.5068,31605.6797
14024.3486,4444.0259,30797.1953
14770.2139,4350.7939,30766.3164
14761.0703,4444.5835,29979.9648
15496.5137,4410.9644,29160.9258
16250.8545,4223.3696,29915.8281
16240.4316,4282.9824,29127.6641
16980.4375,4141.7197,29090.9648
17739.7578,3945.4646,29849.6758
17725.4199,3991.7969,29058.0742
18466.5938,3826.897,29021.7754
19989.9551,3481.1074,29763.1289
19971.8086,3512.4629,28968.1211
21470.9766,3169.6392,28908.8945
22235.6328,3020.6592,28892.0508
22211.4414,3023.6245,28091.4727
22962.2383,2882.824,27282.3945
23741.2188,2768.4646,27277.9102
23727.3594,2776.644,26485.6777
24507.1133,2695.7732,25701.207
25303.6445,2599.3535,26492.75
25304.4141,2632.842,25712.7656
26101.5586,2577.4268,25724.2617
26914.832,2523.7837,26530.4707
26915.4453,2564.7878,25750.4258
27729.1074,2559.8145,25776.459
28554.1855,2537.3325,26593.082
28554.5742,2586.002,25812.9063
29379.7715,2619.3804,25849.1641
30211.6289,2616.874,26671.8711
30211.75,2672.7344,25891.5098
31043.4414,2732.1753,25933.6367
31876.5859,2805.3904,25977.2676
31876.418,2867.3379,25196.6875
31883.7617,2950.5698,24422.7422
33543.5,3178.5203,23724.7031
32717.6992,3188.5371,22907.125
32731.1641,3286.7593,22138.5547
13319.3223,3776.2896,35530.3203
13312.9609,3908.5098,34747.082
12553.5713,3794.8982,35543.5
14066.9316,4009.5679,33946.0391
13301.1797,4028.1768,33959.2188
15552.0176,4099.605,32322.9473
16301.2373,3990.7678,32294.3789
16284.4766,4083.7097,31501.9102
17056.7227,3905.2026,32271.3711
17806.8633,3776.9541,32243.125
17783.8398,3846.6243,31445.0977
14872.5078,3625.49,36299.8711
15623.7676,3704.9275,35496.0977
14853.9619,3726.762,35506.1445
16386.0508,3645.0239,35479.1406
16367.5059,3746.2959,34685.4141
17104.7676,3760.9624,33868.9297
17860.998,3659.0964,33846.1953
17835.9766,3733.6665,33046.6641
18563.0938,3675.0881,32220.3887
20076.4688,3402.6833,32174.3242
20047.3555,3445.9712,31370.7871
21765.0762,3228.0466,35396.2695
20991.9219,3282.478,35404
21034.6758,3296.3921,36219.9141
20953.8086,3297.0562,34592.5078
20223.4063,3365.4019,35416.1484
19452.5391,3415.2891,35425.7891
19490.6563,3400.7109,36237.2773
19420.377,3460.4199,34619.8086
18687.625,3495.729,35440.9375
17918.0801,3538.6687,35451.5938
17950.2422,3493.5381,36257.5742
27202.3516,2744.9731,34582.4961
25664.3477,2903.1204,35385.4141
25618.5,2849.5479,34565.9609
24876.0469,2962.6245,35380.3516
23319.0137,3075.5063,35386.5391
23364.8613,3129.0791,36205.9961
24049.9043,2981.3745,34562.8672
22538.7188,3147.8289,35388.5078
22495.9668,3133.9148,34572.5938
22453.9063,3122.0288,33757.3047
21680.2637,3202.2466,33765.0625
20911.7461,3285.1702,33777.2188
20874.2559,3300.8921,32966.2773
20147.8008,3395.7019,33793.7188
19382.8867,3476.1416,33808.8672
16411.5059,3570.0667,36279.0313
17155.2422,3611.4351,35468.3477
17892.625,3613.626,34651.7109
18623.8359,3586.3301,33829.4414
19351.2578,3521.6121,33003.3516
20835.5195,3292.4951,32153.752
21599.4668,3181.9634,32137.248
22367.8652,3058.97,32124.1504
22329.1289,3050.573,31311.625
23183.5684,2990.6382,32931.6797
23963.2188,2890.5591,32928.3594
24743.5117,2818.2368,32926.3867
25536.707,2750.8992,32934.9414
26325.0078,2691.395,32940.0078
27130.4648,2657.2788,32959.3828
27926.0195,2612.2085,32970.8594
28768.1055,2631.4795,33802.8594
29568.7344,2600.2246,33818.8594
30402.6563,2619.2925,34644.5781
30463.0996,2712.2207,36258.6641
30507.6523,2776.0645,37859.5117
31330.4414,2804.6448,39457.8047
32118.2617,2765.929,39463.3984
32893.2422,2705.7637,39458.1953
33680.6484,2679.7666,39463.4531
34456.0234,2631.5591,39458.5313
35242.3906,2622.531,39462.9063
36018.75,2593.7278,39458.7813
36803.5586,2604.9058,39461.8125
37581.4023,2601.4985,39458.9023
38354.0156,2618.5469,41014.6719
38350.3789,2664.1802,42574.4336
38344.3555,2700.3452,44132.1563
38345.1484,2797.561,45695.1484
38346.2422,2887.5344,47258.4219
11788.1152,3528.0044,37112.6172
11783.8398,3785.3003,35552.7344
11777.4766,3917.5205,34769.4961
12535.2246,4176.9482,33194.0391
13289.1953,4278.0059,32392.9922
14044.3223,4239.7354,32370.8594
3202.9219,3068.5391,43358.832
1642.8843,3136.8423,41799.8633
1642.3054,3121.469,42580.2734
11024.4883,3082.9521,40241.4141
11804.042,3199.5715,39461.4297
10236.7422,3276.7119,38678.4766
82.2678,3189.7725,46490.0547
3203.595,3055.3557,47265.2734
3203.595,3055.3557,46484.0234
82.2678,3189.7725,48052.5547
3203.595,3055.3557,48046.5234
1643.2124,3146.9409,48831.5625
4764.5396,3012.5239,48044.2813
4765.8823,3062.3203,48827.7422
6326.2651,2970.7354,48042.7031
7891.8408,2994.5801,48826.9453
7890.498,2944.7837,48043.4844
7892.4375,3105.1521,49611.2344
9456.6699,3079.2007,49612.0156
11019.7676,3189.7725,50396.3047
11019.1699,3079.2007,49612.0156
82.2678,3189.7725,49615.0547
1643.2124,3146.9409,49612.8125
1644.7678,3189.7725,50396.3047
3205.7124,3146.9409,49612.8125
4767.438,3105.1521,49611.2344
4769.7676,3189.7725,50396.3047
6329.9375,3105.1521,49611.2344
7894.7676,3189.7725,50396.3047
15764.957,2944.7075,44967.0703
14183.0059,2876.3184,44168.9531
14183.8164,2869.5798,44950.8086
14181.1748,2913.3752,43387.0859
12600.0332,2838.2476,43370.8281
11026.999,2868.7373,42582.1172
11028.8301,2831.6807,43363.9766
11027.3184,2932.0308,41802.6328
9456.1152,2925.4639,41795.7813
7892.5771,3016.9839,41015.8789
7892.2578,2953.6907,41795.3633
7894.2178,3076.1187,40237.3516
6330.3604,3104.3457,40236.9336
4769.5601,3171.3806,39458.5078
4767.9194,3112.2458,40237.0391
18857.9688,3262.7781,40259.8359
17272.5801,3267.3081,39460.7813
17294.7188,3237.7942,40259.1953
18808.5313,3329.1763,38659.0859
17245.2813,3304.1924,38658.4453
18005.2871,3380.437,37861.5938
20366.6387,3314.0044,38655
21144.2109,3287.0195,38651.4922
21111.8828,3297.9063,37844.4883
21180.4531,3300.6055,39462.2344
21925.6953,3284.5073,38651.7266
22704.7344,3250.9321,38649.4844
22668.4922,3237.3467,37838.7422
22774.5508,3313.5605,40269.7461
23517.3477,3266.3999,39456.7617
12577.5352,3298.5212,38676.0469
14146.1445,3214.4907,39459.5781
14158.9648,3146.6328,40249.5664
15722.1504,3174.4663,40250.125
17307.5391,3169.9363,41049.1797
17323.5508,3148.0264,41842.8984
18896.1172,3211.3545,41851.9688
20466.3906,3254.9937,41859.2813
20450.3789,3276.9033,41065.5625
20499.6172,3264.4253,43449.0156
22053.8789,3329.9741,42662.6094
15761.6172,2954.5884,46527.3711
14184.1025,2863.7473,45732.1719
14179.9512,2880.3667,46510.6172
12602.1504,2795.3582,44934.0547
11028.6113,2794.8948,44144.1602
11028.8975,2789.0623,44925.5234
9455.5762,2825.3848,43355.4453
7890.9531,2907.6504,42574.4609
7890.7344,2870.8645,43354.6406
6327.4155,2999.1704,41794.5586
4766.9429,3086.6284,41016.8906
4765.6382,3040.5881,41795.9883
3206.1423,3153.6636,40238.4688
1644.6934,3184.5266,38677.4609
1643.7168,3158.9092,39457.3125
2426.3145,3192.7158,38677.9766
863.8888,3197.9619,37896.8203
863.8888,3197.9619,34771.8203
82.2678,3189.7725,34771.3047
4763.3887,2974.5479,44136.3242
4763.9673,2989.9211,43355.9141
4763.1475,2967.7339,44917.1875
6324.1929,2889.1162,44914.2656
7889.5762,2829.3049,45696.3906
7889.8174,2836.1187,44915.5313
7889.6816,2857.9321,46478.3633
9455.3066,2804.9351,46479.625
11027.5,2839.9631,47269.3047
11027.3945,2811.3359,46487.3359
11024.1934,2905.6616,48049.4766
12596.2813,2912.0625,48057.1836
13378.9561,2993.6511,48841.457
13382.2617,2927.9526,48061.2891
82.2678,3189.7725,39458.8047
1643.7168,3158.9092,41019.8125
3204.3333,3105.9792,41798.3711
4764.8057,3018.5212,42576.0391
6325.2725,2924.53,43353.5313
7889.8955,2842.2644,44134.5156
9455.2793,2782.4531,44916.6406
11028.8193,2782.9165,45706.5352
12601.0117,2817.9448,46496.2188
14178.5264,2908.7859,47291.4141
14961.2012,2990.3745,48075.6875
17338.0527,3058.9785,47322.2031
17342.2031,3042.3594,46543.7578
18924.4688,3153.667,45780.5078
17348.0332,3049.2769,44985.6719
17347.2227,3056.0151,44203.8164
17341.9297,3084.6191,43418.8984
15758.8555,2980.05,43400.2891
14175.8828,2941.9792,42602.168
14172.6758,3007.2329,41819.8672
12594.9951,2940.5581,41806.6641
11024.1113,2997.2844,41020.332
9456.8105,3074.4248,40237.375
7894.5942,3161.7866,39458.4297
14951.6104,3031.8442,48850.3672
15747.875,3012.6777,48080.4961
16525.209,3080.2935,48860.2813
16534.7988,3038.8237,48085.6016
18115.3867,3126.5947,48101.9922
18098.8633,3133.8589,48870.3984
18902.1172,3154.0137,48107
20456.707,3209.6545,48883.5117
20473.2285,3202.3901,48115.1016
20421.4316,3175.5254,49635.8555
21992.543,3223.9019,49643.9609
23519.7676,3189.7725,50396.3047
23555.043,3223.9019,49643.9609
32144.3242,3161.7979,48860.7109
31382.1328,3151.9458,48096.1172
30623.4336,3178.3848,47334.1133
30611.6914,3196.5073,48105.1094
29837.1016,3222.0215,48110.6563
29081.0977,3261.5322,47350.7813
29065.207,3260.6074,48118.3281
28289.7168,3282.4141,48123.0625
27534.8301,3327.0015,47363.9336
27515.3457,3309.2971,48128.5391
25959.1602,3328.5845,48133.3906
25982.5977,3363.4099,47371.8164
25181.2988,3338.1096,48135.7969
23638.1563,3338.3384,47369.5508
23614.7188,3303.5127,48131.125
24431.3027,3381.2537,45817.5234
22864.7227,3346.6567,45812.8516
22872.4863,3364.489,44256.5859
22079.3398,3321.5737,45808.6094
23622.5176,3359.3003,42668.9219
22837.1348,3334.217,42664.6836
22803.9102,3324.7854,41074.9492
21991.2949,3309.3179,40267.6719
20421.0215,3265.6787,40260.3594
19639.5352,3268.1909,40260.125
19617.3984,3297.7048,39461.7148
19585.0703,3308.5913,38654.7109
19557.7695,3345.4758,37852.375
82.2678,3189.7725,42583.8047
1642.3054,3121.469,44142.7734
82.2678,3189.7725,44927.5547
1642.3054,3121.469,44924.0234
3203.1096,3036.0374,45701.9688
6324.437,2901.6206,46477.1875
7890.167,2877.2505,47260.4219
9455.7422,2901.0955,48044.6641
11024.5244,2973.1948,48832.5391
12587.6211,3083.7668,49616.8281
13373.6016,3099.6567,49620.9336
13363.5176,3189.7725,50396.3047
14154.8516,3099.6567,49620.9336
14941.5254,3121.96,49625.7422
14926.0176,3189.7725,50396.3047
15722.7754,3121.96,49625.7422
16509.6992,3148.106,49630.8477
16488.5176,3189.7725,50396.3047
17290.9492,3148.106,49630.8477
18077.6816,3175.5254,49635.8555
18051.0176,3189.7725,50396.3047
18858.9316,3175.5254,49635.8555
20394.7676,3189.7725,50396.3047
13337.4063,3528.855,37101.4961
14107.2129,3507.0205,37091.4492
15660.0439,3507.5933,37083.0391
16429.2363,3474.0044,37072.2422
17205.0195,3465.6455,37067.3359
17974.5664,3422.7058,37056.6758
18750.5098,3408.3296,37051.832
19521.375,3358.4421,37042.1953
20297.916,3337.8572,37037.8203
21071.0703,3283.4258,37030.0898
21848.6406,3256.4412,37026.582
23405.6758,3143.5596,37020.3945
24184.7129,3109.9844,37018.1563
24228.4727,3163.415,37835.9297
24298.291,3226.0435,39456.1953
24368.625,3316.1172,41077.5508
24403.9766,3346.3892,42669.4531
24439.6055,3394.1406,44261.9063
25213.0391,3385.8223,45818.6016
25990.3945,3364.9233,45815.8594
26768.2559,3355.3984,45813.4531
27541.6289,3311.7964,45807.2031
28316,3284.9131,45801.7266
29086.5625,3226.5864,45792.9844
29858.457,3188.0005,45785.3086
30627.3867,3123.0259,45775.082
31397.8281,3078.4644,45766.0898
32163.8906,3089.0137,47315.6953
32914.3359,3116.9883,48851.2891
33684.9492,3077.6584,48842.3125
33676.0195,3189.7725,50396.3047
34466.1992,3077.6584,48842.3125
35238.4297,3049.5356,48834.668
35238.5195,3189.7725,50396.3047
36019.6797,3049.5356,48834.668
36794.4063,3037.3569,48829.1094
36801.0195,3189.7725,50396.3047
37575.6563,3037.3569,48829.1094
38352.8516,3039.9502,48825.6172
39144.7695,3189.7725,50396.3047
39915.3516,3039.9502,48825.6172
40694.6602,3053.9614,48823.8984
41463.1094,2940.2217,47251.2344
42243.2734,2900.8784,45687.8125
43025.1484,2883.6079,44125.7891
43814.6133,2918.0527,42569.8516
45382.8828,3003.333,42574.4219
11023.8535,3009.4644,1957.8418
9456.3838,2939.3242,2733.4795
11023.6484,2942.0889,2737.3533
7892.7529,3032.1636,1953.4922
7892.5479,2964.7881,2733.0037
6327.7705,3010.207,2732.2397
7891.4014,2917.3677,3512.2271
4767.0288,3093.9622,1954.3542
4765.8828,3046.542,2733.5776
3204.4419,3110.2107,2735.9094
4765.1836,3026.4556,3513.7949
4763.896,2969.311,6636.4556
6325.1323,2890.9866,5852.3672
4764.085,2981.916,5855.6387
7890.4956,2811.8398,6634.0723
7890.6846,2824.4448,5853.2549
9456.0273,2765.1445,5854.147
7890.6646,2844.2915,5072.4424
7891.6675,2864.4358,9761.3105
7891.915,2913.8994,10543.9365
9456.8906,2855.0532,10544.5391
6327.6885,2956.6777,10543.5586
7892.9111,2947.2949,11326.7871
11026.002,2923.2017,11332.5664
12597.499,2887.5361,10557.5596
11028.6348,2868.8511,10552.1582
10241.7295,2849.8081,10547.2539
10241.4824,2800.3445,9764.6279
11813.2266,2814.1423,9772.2471
12601.8574,2797.334,8215.2109
11814.9531,2778.291,8210.3066
11811.3623,2870.8394,3522.0957
11026.2119,2794.459,5079.7041
11812.4707,2805.022,5083.9492
5547.7803,3020.1133,11327.3633
5548.7759,3053.5088,12110.2129
4766.6729,3036.728,11327.834
3987.7607,3133.5591,12894.4883
3208.4209,3195.0239,14459.9414
3989.5278,3178.4092,14459.4697
2427.968,3222.7256,16023.708
2427.3501,3208.3433,14460.3691
1645.1301,3191.1948,14459.1543
2425.583,3163.4932,12895.3877
3205.3318,3117.6982,11330.6191
2424.2612,3131.0176,11331.0479
4765.3511,3004.2524,9763.4941
6326.0576,2904.3901,8978.4883
4764.7163,2985.3606,8981.2734
7891.0322,2845.5439,8979.0908
9456.4561,2778.9651,8979.873
7890.8457,2818.9194,8197.0508
10241.2949,2773.72,8982.5879
11026.8203,2761.8706,8204.4502
10241.7949,2740.4912,7419.6948
11815.4521,2745.062,6647.4141
12600.6025,2821.4424,5089.8057
10240.5557,2822.6338,4295.5923
10241.6641,2756.8164,5857.4458
10241.6836,2736.9697,6638.2588
9456.1582,2748.8193,7416.396
7890.6064,2815.3611,7415.5083
6325.1826,2881.9399,7414.7266
4764.1353,2972.8696,7417.9976
3203.4292,3072.7319,8203.0029
1642.5581,3125.0066,6643.0156
1643.1389,3137.4976,8206.292
863.39,3183.2925,9771.0605
82.2678,3189.7725,9771.3047
863.39,3183.2925,12896.0605
864.0079,3197.6748,14459.3984
82.2678,3189.7725,16021.3047
864.0079,3197.6748,17584.3984
1647.6078,3248.8521,22275.0059
2432.6736,3341.8691,23842.791
2431.9602,3324.9551,20716.8203
3215.4666,3376.9341,20719.8867
2430.4009,3283.917,19152.1016
3999.0293,3449.4663,20723.4902
3997.47,3408.4287,19158.7734
4777.8486,3384.3174,17595.043
3994.2856,3311.7852,17591.4395
8679.2051,3320.4583,15245.9229
7898.3174,3290.5376,15245.4971
7119.1406,3373.9102,16030.3965
7896.4766,3220.5132,14461.1172
6336.4121,3273.9648,15245.5898
5554.6182,3245.8071,15244.46
5556.4585,3315.8315,16028.8398
8679.5488,3433.0205,16030.1016
9458.7256,3349.6479,15245.2031
10236.7598,3488.1746,16027.0723
10236.416,3375.6123,15242.8936
11795.8496,3410.4351,15241.0791
11017.8164,3271.9087,14459.209
9458.377,3481.9253,37123.2422
7899.1914,3520.7524,36345.5781
8681.4941,3660.2695,35568.4688
7121.9141,3584.2739,35569.0391
7123.8765,3657.7861,34791.0859
7905.8047,3819.1748,34014.1875
7125.4644,3753.1699,34013.3398
7127.335,3823.5361,33235.2344
7908.8271,4001.1326,32458.3633
7128.769,3910.1104,32457.1563
7130.4482,3973.3745,31678.7305
7911.4541,4159.8027,30901.6738
7131.6416,4045.4707,30900.1172
7133.0332,4097.6768,30121.1953
7913.5151,4283.8501,29343.7109
7133.9004,4149.6274,29341.8477
7134.9048,4186.8193,28562.2617
7914.8398,4361.9385,27784.0781
7135.3613,4212.9565,27781.9785
7135.8804,4231.1782,27001.5586
7915.2573,4382.79,26222.3789
7135.8413,4225.8926,26220.1426
7135.7773,4221.2295,25438.7207
7135.1099,4192.8799,24656.2617
6355.6689,4036.6045,24654.0215
5572.2402,3877.4429,24648.4922
5550.1006,3100.5786,12893.6465
6330.0088,3037.1431,12109.8428
7894.5308,3066.4028,12893.4121
7893.2061,3019.333,12109.9785
9457.4336,2976.5549,12110.3564
11022.4824,3074.1382,12895.7969
11022.1875,3002.1001,12112.6055
12591.0508,3020.7852,12118.0068
13370.2588,3133.9775,12900.1182
13374.0742,3055.0791,12120.0791
14947.6396,3152.2292,12130.9238
14168.4316,3039.0371,11348.8125
14936.5195,3214.1475,12904.667
15730.877,3198.1055,12133.4004
16503.0117,3314.5664,12909.8047
16514.1328,3252.6479,12136.0625
1643.0054,3139.9485,3518.7158
1643.0054,3139.9485,1956.2159
82.2678,3189.7725,1958.8052
1643.7045,3160.0347,1175.9987
3206.2046,3160.0347,1175.9987
1644.7678,3189.7725,396.3051
4768.0923,3123.7,1174.6606
6330.5918,3123.7,1174.6606
4769.7676,3189.7725,396.3051
7894.4282,3098.2358,1175.1366
9456.9277,3098.2358,1175.1366
7894.7676,3189.7725,396.3051
11024.1924,3101.001,1179.0104
12586.6924,3101.001,1179.0104
11019.7676,3189.7725,396.3051
13376.1914,3027.2915,1965.1223
13371.7676,3116.063,1182.417
14153.0176,3116.063,1182.417
13363.5176,3189.7725,396.3051
14946.9082,3064.522,1972.5522
14938.6582,3138.2314,1186.4404
15719.9082,3138.2314,1186.4404
14926.0176,3189.7725,396.3051
16518.3887,3113.9014,1980.8702
16505.7461,3165.4424,1190.7349
17286.9961,3165.4424,1190.7349
16488.5176,3189.7725,396.3051
18089.8926,3171.301,1989.3875
18072.6641,3195.6313,1194.9578
18853.9141,3195.6313,1194.9578
18051.0176,3189.7725,396.3051
19660.6836,3232.5928,1997.4175
19639.0371,3226.7341,1198.7648
20420.2871,3226.7341,1198.7648
19613.5176,3189.7725,396.3051
21230.0195,3293.6484,2004.2715
21204.5,3256.6868,1201.8118
21985.75,3256.6868,1201.8118
21176.0176,3189.7725,396.3051
13382.2402,2973.7305,2749.938
14167.3145,2988.7927,2753.3447
14962.2207,2974.9448,3545.1509
14956.1719,3028.5056,2760.335
15741.8145,3050.6741,2764.3584
16540.2773,3063.4878,3559.6113
16531.0137,3099.5044,2771.8286
17316.8516,3126.7151,2776.123
18118.375,3166.585,3574.4307
18105.75,3180.9819,2783.4722
18891.416,3211.1709,2787.6948
19695.2285,3276.8745,3588.4077
19679.3711,3267.1934,2794.323
20464.4961,3298.2964,2798.1301
21250.8633,3352.394,2803.4373
22035.0781,3382.3467,2806.4841
14178.8496,2889.6108,5103.9287
14967.707,2929.3237,5110.9189
14976.0801,2904.7761,6679.4434
15759.4512,2990.1104,5120.6655
16548.6504,3038.9404,5128.1357
16560.0391,3040.3872,6699.627
17340.8633,3113.7651,5138.5728
18129.7617,3168.0317,5145.9219
18144.0391,3198.5791,6720.3447
18921.5508,3251.3992,5156.2021
19709.5039,3307.4219,5162.8301
19726.2891,3368.3613,6739.9043
20499.9668,3393.8364,5172.1094
21299.5098,3497.9668,5970.2148
14180.9941,2882.1265,8230.3516
14972.7383,2942.9131,8240.0986
14967.5332,2983.1992,9799.2578
15762.6191,3005.8491,8248.3486
16554.834,3080.6738,8258.7861
16547.6621,3123.1777,9816.3574
17345.082,3157.7158,8267.6357
18136.8672,3241.0833,8277.916
18127.7734,3286.0771,9833.9365
18926.7305,3326.9404,8286.6445
19717.1934,3413.355,8295.9238
20505.4336,3497.3218,8303.3584
21304.9883,3538.7427,6756.6172
22087.75,3581.9336,5977.6484
18885.0234,3430.813,11380.1943
19635.1016,3552.8164,12920.0996
19667.7148,3493.9375,11382.5703
21948.6328,3728.3975,13680.3398
21199.9063,3678.9814,12924.3828
21166.5215,3665.3569,13678.4336
22007.6016,3743.7131,12165.7383
21225.4902,3680.6724,12163.832
20475.4121,3558.6689,10623.9258
22050.9648,3735.6624,10638.1309
20493.1895,3548.9272,9856.8711
22080.9844,3674.3149,8317.5635
18101.9512,3370.5215,11377.5664
18069.3379,3429.4004,12915.0957
17312.0879,3284.6643,11368.8379
16539.9531,3168.2036,10592.4326
15749.707,3091.1614,10583.582
14176.1406,2994.0112,10572.7383
13386.2598,2931.075,10564.4873
13388.8926,2876.7241,9784.0791
13392.2344,2838.5874,8223.4238
13393.96,2802.7358,6661.4834
13388.4736,2848.3572,5095.7153
13385.4922,2908.3171,3532.2505
12594.3691,2946.8159,2744.0281
11808.1104,2936.2527,2739.7832
10240.6406,2866.1123,3515.4209
9456.0938,2828.47,4293.1626
7891.3159,2873.8892,4292.3984
6325.9727,2933.1892,4291.5068
4764.5322,2996.8579,4293.8384
3203.2957,3075.1826,5077.9268
1642.5581,3125.0066,5080.5156
82.2678,3189.7725,5083.8052
19544.6211,3602.5203,15192.2363
18772.0957,3595.3022,15199.3574
19514.5898,3639.2422,15950.2188
18024.2813,3522.0098,14443.5176
17994.2539,3558.7314,15201.5
17222.6563,3552.2104,15209.3701
17970.4707,3625.5029,15965.2109
16468.5762,3451.6812,14447.8281
16444.7949,3518.4524,15211.5391
15673.3711,3510.9595,15219.5
16427.4512,3611.4888,15981.043
14912.5938,3387.8481,14452.0117
14895.25,3480.8848,15221.5156
14123.2422,3470.7515,15228.9121
14884.0195,3593.8628,15996.4023
13355.8613,3332.2524,14455.7109
13344.6309,3445.2305,15230.5967
12571.2793,3430.7876,15236.7695
13338.6602,3569.2864,16009.9707
11789.8789,3534.4912,16020.4531
5559.6426,3412.4751,17596.1719
5563.5186,3563.7031,19165.3457
6342.1289,3495.2173,17599.1445
7123.0166,3525.1382,17599.5703
7126.2788,3729.0542,19169.4902
7903.291,3607.7471,17600.7422
8682.8115,3636.9368,17600.0234
8683.4805,3883.7959,19168.8711
9459.7383,3709.0693,17598.2305
10237.4287,3735.0337,17595.9219
10232.8555,4007.2415,19161.1582
11009.875,3786.3467,17590
11785.3057,3806.699,17585.6895
11772.2109,4079.1621,19144.0898
12552.2148,3827.3066,17574.5449
13325.5654,3841.7495,17568.3711
13300.9619,4088.687,19116.9297
14087.4072,3830.6665,17552.3574
14859.416,3840.7998,17544.9609
1648.323,3266.7593,26963.5039
2433.5459,3366.7815,26969.082
2433.5442,3365.7886,25406.5547
3217.8965,3441.8911,23848.3691
4002.6196,3557.752,23853.9219
4001.749,3533.8325,22290.1602
4783.7524,3565.3271,20729.043
5568.0332,3719.4214,21516.3848
5565.3135,3635.0552,19949.7148
6347.7993,3717.7974,19952.6875
7129.5845,3897.0693,20738.5977
7127.7896,3825.717,19954.2285
7908.064,3908.3262,19955.4023
8685.2842,4097.7471,20737.8555
8683.7734,4001.0845,19953.1172
9460.7012,4073.2173,19951.3262
10230.9648,4253.9233,20727.9492
10230.6719,4136.6348,19943.7031
11003.1191,4187.9478,19937.7813
11763.8174,4337.8652,20705.9414
11766,4208.4717,19923.3984
12532.9092,4229.0796,19912.2539
13283.0938,4334.6729,20670.875
13289.3047,4205.3633,19891.5684
14051.1465,4194.2803,19875.5547
5569.5723,3781.365,22300.3301
6351.1333,3851.0933,21521.002
7132.4175,4042.9731,22306.8086
7130.8784,3981.0293,21522.8633
7910.8687,4088.949,21524.4063
8686.8193,4283.563,22305.9648
8685.5254,4199.6025,21521.6992
9461.2344,4292.3613,21519.4141
10229.3096,4468.0415,22294.1602
10229.0684,4366.186,21510.3184
10999.04,4429.6035,21502.6953
11756.543,4562.0908,22267.8789
11758.4395,4449.8281,21485.5098
12521.3203,4470.3521,21471.1289
13267.6289,4547.2617,22225.9629
13273.0078,4435.2988,21446.3945
14029.4023,4411.5825,21425.7109
16401.5566,3682.252,16743.166
17172.9805,3689.7449,16735.2031
17911.8809,3733.0938,17483.1973
17937.7754,3662.3306,16721.0742
18709.3711,3668.8516,16713.2031
19443.1836,3677.4678,17456.2832
19475.8789,3640.6401,16700.418
20248.4023,3647.8584,16693.2969
20979.2344,3624.7419,17433.2383
21017.9453,3623.3438,16683.0371
21792.1582,3632.928,16677.3242
21061.3281,3656.0444,15937.3848
1646.3213,3218.7576,17585.7637
2429.8276,3270.7368,17588.832
3212.0476,3287.8853,17590.0469
3992.426,3263.7739,16026.3164
4771.7656,3202.3093,14460.8633
5551.7197,3160.4424,13677.6133
6332.9521,3144.0767,13677.2432
7894.8574,3160.6494,13677.1504
9458.0547,3142.8394,13677.2861
11017.4893,3177.6621,13675.4717
12582.2432,3203.2075,13677.7207
13360.8555,3228.7285,13676.0361
14143.877,3263.0225,13678.1084
14921.998,3293.0972,13676.0938
15705.2354,3338.9736,13678.5703
16483.0977,3372.7314,13676.4014
17266.3516,3427.2739,13679.0625
18044.1953,3463.8445,13676.9209
18827.2676,3524.1362,13679.5488
19569.7617,3568.0762,14430.4102
20352.4531,3631.2007,14432.7871
21126.666,3640.7847,14427.0742
21875.3945,3690.2007,15183.0313
23938.6445,3305.3672,19635.6191
23159.4805,3357.7439,19638.7344
23894.7695,3234.3433,20380.0352
22432.209,3476.6001,18903.8203
22388.334,3405.5762,19648.2344
21619.7734,3484.27,19660.5156
22347.0469,3365.4138,20395.4316
20896.2305,3584.6111,18928.1914
20854.9414,3544.4487,19675.3887
20094.5352,3639.3223,19694.6172
20818.082,3538.9814,20426.9414
19370.9727,3709.9258,18961.5957
19334.1133,3704.4585,19713.1484
18579.4102,3805.3748,19737.1055
19302.9727,3734.7712,20470.125
17852.6289,3837.7676,19000.6016
17821.4883,3868.0801,19757.5781
17070.0391,3964.9023,19784.0469
17796.8223,3932.5095,20520.5488
16337.3848,3953.3594,19041.7793
16312.7168,4017.7886,19804.75
15562.0703,4100.3794,19831.5059
16294.7266,4111.9219,20573.7734
17024.0469,4083.4348,21312.4199
17748.5801,4010.3047,22046.1621
17769.9063,3956.2017,21280.7578
18521.3555,3859.3794,21254.291
19244.2031,3750.1597,21985.8398
19271.1191,3726.4678,21225.6289
20025.8203,3625.5513,21201.6719
20750.5566,3491.1819,21934.1719
20782.4102,3499.4854,21178.668
21542.8164,3404.6118,21159.4414
22273.4844,3258.4202,21896.4727
22309.1563,3297.916,21144.7461
23077.7148,3219.2222,21132.4648
23818.8359,3076.9226,21878.0508
23856.7266,3144.4204,21128.7383
24635.8906,3092.0435,21125.6211
24211.3496,3782.7188,15178.1387
24168.7012,3712.1892,15923.4473
23296.1016,3560.8171,17409.3477
24075.957,3580.1399,17408.4219
23982.7227,3400.6699,18891.9102
24718.0117,3277.269,19633.209
25430.1719,3060.575,21135.2266
25392.127,2970.6523,21883.9297
24569.0859,2924.397,22630.7871
25363.3672,2892.9285,22640.3945
23790.0742,2999.1987,22634.5156
23011.1563,3092.8965,22638.707
23761.4063,2940.3708,23391.4434
22244.8164,3199.5923,22653.4023
21480.1406,3329.2188,22669.9336
22217.8105,3163.6948,23412.168
20723.5508,3455.2847,22692.9375
14766.1387,4433.9043,22171.5352
14776.2246,4333.2783,21396.0156
14791.7842,4252.7344,20625.3594
14803.4414,4136.0581,19850.7227
